ply
format ascii 1.0
element vertex 1151
property float x
property float y
property float z
property uchar red
property uchar green
property uchar blue
end_header
-0.124514 3.206226 -12.550973 157 126 134 
-0.062257 3.206226 -12.550973 139 108 116 
0.000000 3.193799 -12.502326 152 118 132 
0.062257 3.206226 -12.550973 176 142 156 
0.124514 3.206226 -12.550973 181 149 162 
0.186770 3.206226 -12.550973 167 135 146 
0.249027 3.206226 -12.550973 148 115 124 
0.311284 3.206226 -12.550973 149 116 123 
0.375000 3.218750 -12.600000 172 140 145 
0.437500 3.218750 -12.600000 194 165 170 
0.503937 3.244094 -12.699213 204 179 185 
0.576000 3.296000 -12.902400 200 179 186 
0.650406 3.349593 -13.112196 210 190 199 
0.718367 3.363265 -13.165714 214 197 203 
0.786885 3.377049 -13.219672 217 196 201 
0.859504 3.404959 -13.328926 215 194 199 
0.933333 3.433333 -13.440001 211 188 194 
1.004184 3.447699 -13.496235 199 176 182 
1.084746 3.491525 -13.667797 183 162 169 
1.177489 3.567100 -13.963636 164 147 157 
1.257642 3.598253 -14.085590 102 95 103 
1.333333 3.614035 -14.147368 50 49 57 
1.403509 3.614035 -14.147368 39 39 51 
1.480176 3.629956 -14.209692 39 43 55 
1.564444 3.662222 -14.336000 36 42 56 
1.642857 3.678571 -14.400001 34 42 55 
1.729730 3.711712 -14.529730 36 43 59 
1.809955 3.728507 -14.595475 37 43 57 
1.882353 3.728507 -14.595475 39 42 57 
1.954751 3.728507 -14.595475 38 40 52 
2.027149 3.728507 -14.595475 45 43 54 
1.863014 2.821918 -11.046576 47 47 49 
1.917808 2.821918 -11.046576 53 46 40 
1.956522 2.239130 -8.765218 148 128 101 
2.000000 2.239130 -8.765218 96 84 70 
2.043478 2.239130 -8.765218 81 74 66 
2.628895 2.334278 -9.137677 64 58 62 
2.674221 2.334278 -9.137677 63 53 51 
2.719547 2.334278 -9.137677 82 63 49 
2.764873 2.334278 -9.137677 137 112 90 
2.810198 2.334278 -9.137677 170 142 120 
2.863636 2.340909 -9.163636 172 140 115 
2.909091 2.340909 -9.163636 171 136 106 
2.954545 2.340909 -9.163636 186 153 122 
3.000000 2.340909 -9.163636 164 133 105 
3.054131 2.347578 -9.189744 176 148 124 
3.163324 2.361032 -9.242407 140 121 107 
3.218391 2.367816 -9.268966 80 66 57 
3.264368 2.367816 -9.268966 63 52 48 
3.339130 2.388406 -9.349566 57 49 47 
3.425220 2.416422 -9.459238 53 48 45 
3.472141 2.416422 -9.459238 60 52 50 
3.539823 2.430678 -9.515044 56 48 45 
3.619048 2.452381 -9.600000 47 38 33 
3.677612 2.459702 -9.628657 48 39 32 
3.725373 2.459702 -9.628657 49 38 32 
3.773134 2.459702 -9.628657 40 29 23 
3.809524 2.452381 -9.600000 38 27 21 
3.857143 2.452381 -9.600000 37 28 23 
3.893175 2.445104 -9.571513 38 30 27 
3.928994 2.437870 -9.543196 37 28 21 
3.964602 2.430678 -9.515044 48 31 15 
4.000000 2.423529 -9.487059 108 84 58 
4.035191 2.416422 -9.459238 167 137 99 
4.070176 2.409357 -9.431580 181 148 103 
4.081160 2.388406 -9.349566 171 137 92 
4.080229 2.361032 -9.242407 170 136 98 
4.784053 2.737541 -10.716279 180 151 121 
4.837209 2.737541 -10.716279 168 142 119 
4.181818 2.340909 -9.163636 160 135 113 
4.191549 2.321127 -9.086198 126 104 81 
4.201118 2.301676 -9.010056 129 103 80 
4.210526 2.282548 -8.935181 151 123 101 
4.219780 2.263736 -8.861539 124 93 73 
4.299169 2.282548 -8.935181 91 60 42 
3.170909 1.498182 -5.864727 56 43 27 
3.194192 1.495463 -5.854084 42 35 27 
3.217391 1.492754 -5.843478 41 36 32 
3.258182 1.498182 -5.864727 41 33 30 
3.299270 1.503650 -5.886132 42 32 30 
3.722449 1.681633 -6.582857 43 34 29 
-39.000000 25.250000 -100.800003 230 227 210 
-38.500000 25.250000 -100.800003 234 232 217 
-38.000000 25.250000 -100.800003 233 231 218 
-37.500000 25.250000 -100.800003 229 227 214 
-37.000000 25.250000 -100.800003 226 224 212 
-36.500000 25.250000 -100.800003 230 228 216 
-36.000000 25.250000 -100.800003 238 236 224 
-35.500000 25.250000 -100.800003 239 237 225 
-35.000000 25.250000 -100.800003 239 236 227 
-34.500000 25.250000 -100.800003 237 235 223 
-34.000000 25.250000 -100.800003 225 223 211 
-33.500000 25.250000 -100.800003 222 220 207 
-33.000000 25.250000 -100.800003 228 226 213 
-32.500000 25.250000 -100.800003 230 228 215 
-32.000000 25.250000 -100.800003 231 229 216 
-31.500000 25.250000 -100.800003 231 229 214 
-28.500000 25.250000 -100.800003 233 234 220 
-28.000000 25.250000 -100.800003 221 219 204 
-27.500000 25.250000 -100.800003 217 214 195 
-27.000000 25.250000 -100.800003 226 219 200 
-26.500000 25.250000 -100.800003 229 218 196 
-26.000000 25.250000 -100.800003 218 202 179 
-25.500000 25.250000 -100.800003 214 196 174 
-25.000000 25.250000 -100.800003 217 196 177 
-24.500000 25.250000 -100.800003 215 192 174 
-24.000000 25.250000 -100.800003 238 215 199 
-23.500000 25.250000 -100.800003 226 204 193 
-23.000000 25.250000 -100.800003 165 147 143 
-22.500000 25.250000 -100.800003 203 187 187 
-22.000000 25.250000 -100.800003 203 181 183 
-21.500000 25.250000 -100.800003 171 149 151 
-21.000000 25.250000 -100.800003 191 171 172 
-1.822785 3.409283 -13.610127 234 236 235 
-1.755274 3.409283 -13.610127 196 201 205 
-1.694915 3.423729 -13.667797 129 138 147 
-1.627119 3.423729 -13.667797 92 100 119 
-1.539749 3.380753 -13.496235 89 101 125 
-1.466667 3.366667 -13.440001 67 83 109 
-1.394191 3.352697 -13.384233 54 71 99 
-1.322314 3.338843 -13.328926 47 67 92 
-1.251029 3.325103 -13.274075 48 66 90 
-1.185185 3.325103 -13.274075 44 60 83 
-1.114754 3.311476 -13.219672 43 55 79 
-1.044898 3.297959 -13.165714 51 61 88 
-0.975610 3.284553 -13.112196 72 74 99 
-0.899598 3.244980 -12.954217 111 107 124 
-0.825397 3.206349 -12.800000 152 140 154 
-0.758893 3.193676 -12.749408 167 151 164 
-0.690196 3.168628 -12.649412 175 158 168 
-0.625000 3.156250 -12.600000 189 169 178 
-0.562500 3.156250 -12.600000 202 182 191 
-0.500000 3.156250 -12.600000 207 187 198 
-0.437500 3.156250 -12.600000 207 189 201 
-0.375000 3.156250 -12.600000 199 183 193 
-0.312500 3.156250 -12.600000 203 186 194 
-0.250000 3.156250 -12.600000 203 182 189 
-0.187500 3.156250 -12.600000 185 162 168 
-0.125000 3.156250 -12.600000 154 127 134 
-0.062257 3.143969 -12.550973 129 99 107 
0.000000 3.143969 -12.550973 129 99 111 
0.062257 3.143969 -12.550973 143 113 125 
0.124514 3.143969 -12.550973 148 120 134 
0.186770 3.143969 -12.550973 148 120 132 
0.249027 3.143969 -12.550973 142 112 122 
0.311284 3.143969 -12.550973 147 118 123 
0.375000 3.156250 -12.600000 172 143 147 
0.437500 3.156250 -12.600000 198 171 176 
0.503937 3.181102 -12.699213 208 185 191 
0.576000 3.232000 -12.902400 201 182 186 
0.650406 3.284553 -13.112196 203 186 192 
0.718367 3.297959 -13.165714 209 192 198 
0.786885 3.311476 -13.219672 212 191 196 
0.859504 3.338843 -13.328926 207 187 189 
0.933333 3.366667 -13.440001 201 179 182 
1.004184 3.380753 -13.496235 192 169 175 
1.084746 3.423729 -13.667797 178 157 164 
1.182609 3.513043 -14.024348 160 143 151 
1.263158 3.543860 -14.147368 97 87 96 
1.333333 3.543860 -14.147368 49 46 55 
1.409692 3.559471 -14.209692 41 39 52 
1.486726 3.575221 -14.272567 42 44 57 
1.564444 3.591111 -14.336000 38 44 58 
1.642857 3.607143 -14.400001 34 41 57 
1.729730 3.639640 -14.529730 33 40 56 
1.818182 3.672727 -14.661819 36 42 56 
1.890909 3.672727 -14.661819 40 43 58 
1.954751 3.656109 -14.595475 41 43 55 
2.027149 3.656109 -14.595475 48 46 57 
1.681529 2.573248 -10.272612 56 56 58 
1.732484 2.573248 -10.272612 51 51 53 
1.824104 2.631922 -10.506841 59 54 50 
1.869565 2.195652 -8.765218 186 160 125 
1.913043 2.195652 -8.765218 182 156 121 
1.956522 2.195652 -8.765218 139 118 91 
2.000000 2.195652 -8.765218 70 58 44 
2.043478 2.195652 -8.765218 52 45 39 
2.674221 2.288952 -9.137677 47 41 41 
2.719547 2.288952 -9.137677 75 61 50 
2.764873 2.288952 -9.137677 134 115 98 
2.810198 2.288952 -9.137677 160 137 119 
2.863636 2.295455 -9.163636 158 133 111 
2.909091 2.295455 -9.163636 159 132 105 
2.954545 2.295455 -9.163636 180 153 124 
3.000000 2.295455 -9.163636 159 133 108 
3.209169 2.315186 -9.242407 68 57 51 
3.264368 2.321839 -9.268966 51 43 40 
3.319885 2.328530 -9.295677 48 42 42 
3.385507 2.342029 -9.349566 50 46 45 
3.431884 2.342029 -9.349566 48 42 42 
3.519062 2.369501 -9.459238 46 41 38 
3.619048 2.404762 -9.600000 40 35 31 
3.677612 2.411940 -9.628657 44 36 33 
3.725373 2.411940 -9.628657 41 36 32 
3.761905 2.404762 -9.600000 34 29 25 
3.809524 2.404762 -9.600000 35 30 27 
3.845697 2.397626 -9.571513 34 29 26 
3.881657 2.390532 -9.543196 38 32 32 
3.917404 2.383481 -9.515044 37 28 23 
3.952941 2.376471 -9.487059 48 32 17 
3.988270 2.369501 -9.459238 106 85 58 
4.023392 2.362573 -9.431580 166 138 99 
4.034782 2.342029 -9.349566 178 145 100 
4.034384 2.315186 -9.242407 168 134 89 
4.080229 2.315186 -9.242407 169 135 97 
4.114286 2.308571 -9.216001 179 150 120 
4.136364 2.295455 -9.163636 167 141 118 
4.181818 2.295455 -9.163636 163 138 116 
4.215297 2.288952 -9.137677 137 115 92 
4.236620 2.276056 -9.086198 136 110 87 
4.269663 2.269663 -9.060675 152 124 102 
4.278552 2.250696 -8.984959 127 95 74 
4.347339 2.263305 -9.035295 94 61 42 
3.165154 1.466425 -5.854084 49 36 20 
3.194192 1.466425 -5.854084 36 27 20 
3.229091 1.469091 -5.864727 34 29 25 
3.264117 1.471767 -5.875410 35 27 24 
3.299270 1.474452 -5.886132 36 26 24 
3.500000 1.485294 -5.929412 38 34 31 
3.529412 1.485294 -5.929412 41 35 35 
-39.000000 24.750000 -100.800003 230 228 213 
-38.500000 24.750000 -100.800003 229 230 216 
-38.000000 24.750000 -100.800003 228 228 216 
-37.500000 24.750000 -100.800003 226 226 214 
-37.000000 24.750000 -100.800003 223 223 213 
-36.500000 24.750000 -100.800003 226 226 216 
-36.000000 24.750000 -100.800003 233 233 225 
-35.500000 24.750000 -100.800003 234 234 226 
-35.000000 24.750000 -100.800003 237 237 229 
-34.500000 24.750000 -100.800003 234 234 226 
-34.000000 24.750000 -100.800003 224 224 216 
-33.500000 24.750000 -100.800003 222 222 212 
-33.000000 24.750000 -100.800003 228 228 218 
-32.500000 24.750000 -100.800003 231 231 219 
-32.000000 24.750000 -100.800003 233 233 221 
-31.500000 24.750000 -100.800003 236 234 222 
-31.000000 24.750000 -100.800003 230 226 214 
-28.500000 24.750000 -100.800003 234 236 225 
-28.000000 24.750000 -100.800003 224 224 212 
-27.500000 24.750000 -100.800003 219 216 201 
-27.000000 24.750000 -100.800003 228 221 203 
-26.500000 24.750000 -100.800003 230 222 203 
-26.000000 24.750000 -100.800003 216 203 186 
-25.500000 24.750000 -100.800003 216 203 187 
-25.000000 24.750000 -100.800003 229 215 202 
-24.500000 24.750000 -100.800003 232 220 208 
-24.000000 24.750000 -100.800003 242 232 223 
-23.500000 24.750000 -100.800003 224 217 211 
-23.000000 24.750000 -100.800003 167 161 161 
-22.500000 24.750000 -100.800003 181 175 177 
-22.000000 24.750000 -100.800003 181 170 174 
-21.500000 24.750000 -100.800003 171 159 163 
-21.000000 24.750000 -100.800003 205 196 199 
-20.500000 24.750000 -100.800003 233 227 229 
-1.894737 3.473684 -14.147368 243 244 246 
-1.777778 3.384615 -13.784616 231 236 240 
-1.709402 3.384615 -13.784616 184 191 201 
-1.634043 3.370213 -13.725958 127 136 151 
-1.559322 3.355932 -13.667797 113 125 147 
-1.472803 3.313807 -13.496235 82 98 124 
-1.400000 3.300000 -13.440001 65 82 110 
-1.327801 3.286307 -13.384233 54 71 97 
-1.256198 3.272727 -13.328926 49 67 91 
-1.185185 3.259259 -13.274075 46 61 84 
-1.119342 3.259259 -13.274075 48 60 84 
-1.049180 3.245902 -13.219672 51 60 89 
-0.979592 3.232653 -13.165714 61 65 92 
-0.906883 3.206478 -13.059110 112 104 125 
-0.828685 3.155379 -12.850996 152 140 154 
-0.758893 3.130435 -12.749408 166 150 163 
-0.692913 3.118110 -12.699213 174 154 166 
-0.627451 3.105882 -12.649412 185 163 175 
-0.562500 3.093750 -12.600000 198 176 188 
-0.500000 3.093750 -12.600000 200 182 194 
-0.437500 3.093750 -12.600000 202 186 197 
-0.375000 3.093750 -12.600000 201 185 195 
-0.312500 3.093750 -12.600000 202 187 194 
-0.250000 3.093750 -12.600000 202 183 189 
-0.187500 3.093750 -12.600000 194 173 178 
-0.125000 3.093750 -12.600000 182 157 163 
-0.062500 3.093750 -12.600000 170 144 153 
0.000000 3.081712 -12.550973 162 136 147 
0.062257 3.081712 -12.550973 158 132 143 
0.124514 3.081712 -12.550973 163 137 150 
0.187500 3.093750 -12.600000 182 156 167 
0.250000 3.093750 -12.600000 191 164 173 
0.312500 3.093750 -12.600000 191 164 169 
0.375000 3.093750 -12.600000 196 169 174 
0.437500 3.093750 -12.600000 205 180 183 
0.503937 3.118110 -12.699213 209 188 193 
0.576000 3.168000 -12.902400 203 187 190 
0.650406 3.219512 -13.112196 201 184 190 
0.715447 3.219512 -13.112196 204 188 191 
0.783673 3.232653 -13.165714 205 186 188 
0.859504 3.272727 -13.328926 200 180 182 
0.933333 3.300000 -13.440001 193 171 174 
1.000000 3.300000 -13.440001 187 165 168 
1.084746 3.355932 -13.667797 176 155 160 
1.182609 3.443478 -14.024348 153 136 144 
1.263158 3.473684 -14.147368 87 77 86 
1.339207 3.488987 -14.209692 44 41 50 
1.415929 3.504425 -14.272567 39 37 50 
1.493333 3.520000 -14.336000 41 43 56 
1.571429 3.535714 -14.400001 38 44 58 
1.642857 3.535714 -14.400001 35 42 58 
1.729730 3.567568 -14.529730 34 41 57 
1.809955 3.583710 -14.595475 36 42 56 
1.882353 3.583710 -14.595475 37 40 55 
1.954751 3.583710 -14.595475 41 41 53 
1.686901 2.530351 -10.305431 83 81 84 
1.738019 2.530351 -10.305431 77 78 82 
1.806452 2.554839 -10.405162 82 78 75 
1.826087 2.152174 -8.765218 162 133 101 
1.869565 2.152174 -8.765218 185 156 122 
1.913043 2.152174 -8.765218 182 156 121 
1.956522 2.152174 -8.765218 138 117 88 
2.000000 2.152174 -8.765218 68 56 42 
2.043478 2.152174 -8.765218 46 41 37 
2.666667 2.237288 -9.111865 41 37 38 
2.711864 2.237288 -9.111865 68 55 46 
2.764873 2.243626 -9.137677 119 102 86 
2.810198 2.243626 -9.137677 124 102 88 
2.863636 2.250000 -9.163636 117 94 76 
2.909091 2.250000 -9.163636 136 110 87 
2.954545 2.250000 -9.163636 175 149 124 
3.000000 2.250000 -9.163636 150 126 102 
3.163324 2.269341 -9.242407 84 67 57 
3.200000 2.262857 -9.216001 64 53 47 
3.255014 2.269341 -9.242407 48 40 37 
3.310345 2.275862 -9.268966 42 36 36 
3.356322 2.275862 -9.268966 43 39 40 
3.402299 2.275862 -9.268966 43 39 38 
3.478261 2.295652 -9.349566 42 38 37 
3.619048 2.357143 -9.600000 41 36 33 
3.699700 2.378378 -9.686487 40 36 33 
3.747748 2.378378 -9.686487 37 33 30 
3.773134 2.364179 -9.628657 33 29 28 
3.809524 2.357143 -9.600000 33 29 30 
3.845697 2.350148 -9.571513 32 28 29 
3.870207 2.336283 -9.515044 36 30 32 
3.917404 2.336283 -9.515044 38 29 24 
3.941349 2.322581 -9.459238 49 33 18 
3.976608 2.315789 -9.431580 102 81 54 
4.011662 2.309038 -9.404082 162 134 95 
4.011528 2.282421 -9.295677 176 145 99 
4.034384 2.269341 -9.242407 170 136 91 
4.068572 2.262857 -9.216001 168 134 96 
4.090909 2.250000 -9.163636 180 151 121 
4.136364 2.250000 -9.163636 167 141 118 
4.181818 2.250000 -9.163636 165 140 118 
4.215297 2.243626 -9.137677 149 127 104 
4.260623 2.243626 -9.137677 147 121 96 
4.281690 2.230986 -9.086198 154 126 102 
4.326761 2.230986 -9.086198 131 99 76 
4.359550 2.224719 -9.060675 96 64 43 
4.416902 2.230986 -9.086198 87 56 36 
3.205829 1.442623 -5.875410 36 27 20 
3.234973 1.442623 -5.875410 33 28 24 
3.270073 1.445256 -5.886132 33 25 22 
3.305302 1.447898 -5.896893 33 25 23 
3.359116 1.458564 -5.940331 31 25 25 
3.500000 1.455882 -5.929412 37 36 32 
3.529412 1.455882 -5.929412 38 34 35 
-39.000000 24.250000 -100.800003 231 232 218 
-38.500000 24.250000 -100.800003 229 230 216 
-38.000000 24.250000 -100.800003 229 229 217 
-37.500000 24.250000 -100.800003 229 229 217 
-37.000000 24.250000 -100.800003 224 226 215 
-36.500000 24.250000 -100.800003 223 225 214 
-36.000000 24.250000 -100.800003 231 232 224 
-35.500000 24.250000 -100.800003 234 235 227 
-35.000000 24.250000 -100.800003 238 239 233 
-34.500000 24.250000 -100.800003 234 235 227 
-34.000000 24.250000 -100.800003 226 226 218 
-33.500000 24.250000 -100.800003 226 226 216 
-33.000000 24.250000 -100.800003 229 229 219 
-32.500000 24.250000 -100.800003 230 230 220 
-32.000000 24.250000 -100.800003 231 231 219 
-31.500000 24.250000 -100.800003 231 231 221 
-31.000000 24.250000 -100.800003 234 231 226 
-28.500000 24.250000 -100.800003 238 240 235 
-28.000000 24.250000 -100.800003 236 236 228 
-27.500000 24.250000 -100.800003 232 230 218 
-27.000000 24.250000 -100.800003 232 226 214 
-26.500000 24.250000 -100.800003 230 222 211 
-26.000000 24.250000 -100.800003 217 209 198 
-25.500000 24.250000 -100.800003 226 217 208 
-25.000000 24.250000 -100.800003 242 237 231 
-24.500000 24.250000 -100.800003 247 246 242 
-24.000000 24.250000 -100.800003 243 247 246 
-23.500000 24.250000 -100.800003 220 224 227 
-23.000000 24.250000 -100.800003 178 179 183 
-22.500000 24.250000 -100.800003 160 158 163 
-22.000000 24.250000 -100.800003 143 138 144 
-21.500000 24.250000 -100.800003 143 138 144 
-21.000000 24.250000 -100.800003 177 172 178 
-20.500000 24.250000 -100.800003 204 202 207 
-1.894737 3.403509 -14.147368 244 245 249 
-1.824561 3.403509 -14.147368 243 246 251 
-1.746725 3.388646 -14.085590 225 232 240 
-1.662338 3.359307 -13.963636 173 183 195 
-1.565957 3.302128 -13.725958 147 162 181 
-1.478992 3.260504 -13.552941 118 135 161 
-1.400000 3.233333 -13.440001 86 103 131 
-1.327801 3.219917 -13.384233 62 79 105 
-1.256198 3.206612 -13.328926 53 69 94 
-1.185185 3.193416 -13.274075 51 66 89 
-1.119342 3.193416 -13.274075 51 63 89 
-1.049180 3.180328 -13.219672 50 61 91 
-0.979592 3.167347 -13.165714 57 61 90 
-0.906883 3.141701 -13.059110 108 100 121 
-0.828685 3.091634 -12.850996 153 139 156 
-0.761905 3.079365 -12.800000 170 152 166 
-0.692913 3.055118 -12.699213 178 156 169 
-0.627451 3.043137 -12.649412 186 164 176 
-0.564706 3.043137 -12.649412 197 175 187 
-0.501961 3.043137 -12.649412 199 181 193 
-0.437500 3.031250 -12.600000 200 184 195 
-0.375000 3.031250 -12.600000 203 187 197 
-0.312500 3.031250 -12.600000 201 186 193 
-0.250000 3.031250 -12.600000 197 180 186 
-0.187500 3.031250 -12.600000 195 176 180 
-0.125000 3.031250 -12.600000 194 173 178 
-0.062500 3.031250 -12.600000 196 173 181 
0.000000 3.031250 -12.600000 199 176 186 
0.062500 3.031250 -12.600000 200 178 190 
0.125000 3.031250 -12.600000 202 180 193 
0.187500 3.031250 -12.600000 208 186 198 
0.250000 3.031250 -12.600000 207 181 190 
0.312500 3.031250 -12.600000 201 176 180 
0.375000 3.031250 -12.600000 200 175 179 
0.437500 3.031250 -12.600000 201 179 181 
0.503937 3.055118 -12.699213 204 185 189 
0.573705 3.091634 -12.850996 203 187 190 
0.647773 3.141701 -13.059110 201 185 188 
0.715447 3.154472 -13.112196 201 185 188 
0.783673 3.167347 -13.165714 203 184 186 
0.859504 3.206612 -13.328926 200 180 181 
0.933333 3.233333 -13.440001 192 170 172 
1.000000 3.233333 -13.440001 188 166 169 
1.084746 3.288136 -13.667797 174 153 158 
1.187773 3.388646 -14.085590 144 127 133 
1.263158 3.403509 -14.147368 73 63 72 
1.339207 3.418502 -14.209692 38 35 44 
1.415929 3.433628 -14.272567 36 34 47 
1.493333 3.448889 -14.336000 36 38 51 
1.571429 3.464286 -14.400001 35 41 55 
1.642857 3.464286 -14.400001 37 44 60 
1.729730 3.495496 -14.529730 38 45 61 
1.801802 3.495496 -14.529730 37 43 57 
1.873874 3.495496 -14.529730 41 44 59 
1.954751 3.511312 -14.595475 43 43 55 
1.697749 2.495177 -10.371704 71 69 72 
1.743590 2.487180 -10.338462 72 73 78 
1.806452 2.503226 -10.405162 72 71 69 
1.882353 2.535948 -10.541177 95 79 66 
1.782609 2.108696 -8.765218 166 139 112 
1.826087 2.108696 -8.765218 162 133 101 
1.869565 2.108696 -8.765218 185 156 122 
1.913043 2.108696 -8.765218 184 158 123 
1.956522 2.108696 -8.765218 140 119 92 
2.000000 2.108696 -8.765218 70 60 48 
2.043478 2.108696 -8.765218 46 42 41 
2.636364 2.204545 -9.163636 43 42 50 
2.674221 2.198300 -9.137677 46 42 43 
2.719547 2.198300 -9.137677 70 57 49 
2.764873 2.198300 -9.137677 103 85 71 
2.810198 2.198300 -9.137677 86 64 51 
2.863636 2.204545 -9.163636 79 56 40 
2.909091 2.204545 -9.163636 117 90 71 
2.954545 2.204545 -9.163636 171 145 122 
3.000000 2.204545 -9.163636 139 114 92 
3.145299 2.210826 -9.189744 76 59 49 
3.190883 2.210826 -9.189744 68 57 51 
3.245714 2.217143 -9.216001 55 47 44 
3.300860 2.223496 -9.242407 47 41 41 
3.356322 2.229885 -9.268966 44 38 38 
3.402299 2.229885 -9.268966 44 40 39 
3.458213 2.236311 -9.295677 42 38 37 
3.640718 2.323353 -9.657485 42 38 35 
3.710843 2.337349 -9.715663 41 37 34 
3.759036 2.337349 -9.715663 40 36 35 
3.773134 2.316418 -9.628657 38 36 37 
3.809524 2.309524 -9.600000 36 34 37 
3.857143 2.309524 -9.600000 34 32 35 
3.881657 2.295858 -9.543196 40 35 39 
3.917404 2.289086 -9.515044 42 32 30 
3.941349 2.275660 -9.459238 48 34 21 
3.976608 2.269006 -9.431580 96 76 51 
4.011662 2.262391 -9.404082 158 130 93 
4.000000 2.229885 -9.268966 175 144 100 
4.022857 2.217143 -9.216001 174 139 97 
4.068572 2.217143 -9.216001 173 139 101 
4.090909 2.204545 -9.163636 182 153 123 
4.136364 2.204545 -9.163636 169 143 120 
4.181818 2.204545 -9.163636 165 140 118 
4.227273 2.204545 -9.163636 159 137 113 
4.260623 2.198300 -9.137677 156 130 103 
4.293785 2.192091 -9.111865 156 129 102 
4.326761 2.185915 -9.086198 138 104 79 
4.371831 2.185915 -9.086198 99 64 42 
4.416902 2.185915 -9.086198 89 58 38 
3.217550 1.418647 -5.896893 39 32 26 
3.240876 1.416058 -5.886132 36 31 28 
3.270073 1.416058 -5.886132 36 28 26 
3.311355 1.421245 -5.907692 35 30 27 
3.359116 1.429098 -5.940331 34 30 29 
3.401109 1.434381 -5.962292 36 35 33 
3.430684 1.434381 -5.962292 41 37 34 
3.466667 1.437037 -5.973333 41 38 33 
3.489834 1.434381 -5.962292 41 42 36 
3.500000 1.426471 -5.929412 44 46 41 
3.529412 1.426471 -5.929412 46 44 45 
-39.000000 23.750000 -100.800003 228 230 217 
-38.500000 23.750000 -100.800003 229 231 218 
-38.000000 23.750000 -100.800003 227 229 218 
-37.500000 23.750000 -100.800003 225 227 216 
-37.000000 23.750000 -100.800003 225 226 218 
-36.500000 23.750000 -100.800003 232 233 225 
-36.000000 23.750000 -100.800003 238 239 233 
-35.500000 23.750000 -100.800003 232 235 228 
-35.000000 23.750000 -100.800003 231 234 227 
-34.500000 23.750000 -100.800003 237 240 233 
-34.000000 23.750000 -100.800003 235 236 230 
-33.500000 23.750000 -100.800003 229 230 224 
-33.000000 23.750000 -100.800003 229 230 222 
-32.500000 23.750000 -100.800003 233 234 226 
-32.000000 23.750000 -100.800003 238 238 228 
-31.500000 23.750000 -100.800003 233 233 225 
-31.000000 23.750000 -100.800003 237 236 234 
-30.500000 23.750000 -100.800003 245 243 244 
-28.500000 23.750000 -100.800003 238 240 237 
-28.000000 23.750000 -100.800003 244 245 240 
-27.500000 23.750000 -100.800003 242 242 234 
-27.000000 23.750000 -100.800003 234 229 223 
-26.500000 23.750000 -100.800003 227 220 212 
-26.000000 23.750000 -100.800003 218 211 201 
-25.500000 23.750000 -100.800003 233 229 220 
-25.000000 23.750000 -100.800003 246 247 242 
-24.500000 23.750000 -100.800003 250 255 255 
-24.000000 23.750000 -100.800003 241 251 253 
-23.500000 23.750000 -100.800003 215 224 229 
-23.000000 23.750000 -100.800003 171 176 182 
-22.500000 23.750000 -100.800003 142 143 148 
-22.000000 23.750000 -100.800003 124 123 129 
-21.500000 23.750000 -100.800003 128 127 133 
-21.000000 23.750000 -100.800003 147 146 151 
-20.500000 23.750000 -100.800003 170 169 174 
-20.000000 23.750000 -100.800003 225 223 226 
-1.894737 3.333333 -14.147368 254 255 255 
-1.769912 3.362832 -14.272567 245 250 254 
-1.684211 3.333333 -14.147368 213 222 231 
-1.593074 3.290043 -13.963636 196 208 222 
-1.491525 3.220339 -13.667797 161 176 197 
-1.400000 3.166667 -13.440001 110 126 151 
-1.327801 3.153527 -13.384233 71 87 113 
-1.256198 3.140496 -13.328926 60 76 102 
-1.185185 3.127572 -13.274075 56 72 98 
-1.114754 3.114754 -13.219672 50 64 91 
-1.044898 3.102041 -13.165714 46 59 91 
-0.971660 3.076923 -13.059110 56 61 90 
-0.903226 3.064516 -13.006452 101 96 118 
-0.828685 3.027889 -12.850996 150 137 154 
-0.761905 3.015873 -12.800000 172 154 168 
-0.692913 2.992126 -12.699213 182 160 173 
-0.629921 2.992126 -12.699213 190 168 180 
-0.564706 2.980392 -12.649412 199 177 189 
-0.501961 2.980392 -12.649412 199 182 192 
-0.439216 2.980392 -12.649412 197 184 193 
-0.376471 2.980392 -12.649412 198 185 194 
-0.313726 2.980392 -12.649412 192 179 188 
-0.250980 2.980392 -12.649412 191 174 182 
-0.188235 2.980392 -12.649412 195 174 183 
-0.125000 2.968750 -12.600000 195 172 182 
-0.062500 2.968750 -12.600000 194 168 181 
0.000000 2.968750 -12.600000 197 169 184 
0.062500 2.968750 -12.600000 203 174 192 
0.125000 2.968750 -12.600000 205 178 195 
0.187500 2.968750 -12.600000 204 177 192 
0.250000 2.968750 -12.600000 200 172 184 
0.312500 2.968750 -12.600000 201 174 183 
0.375000 2.968750 -12.600000 203 176 183 
0.439216 2.980392 -12.649412 201 176 182 
0.505929 3.003953 -12.749408 200 179 186 
0.573705 3.027889 -12.850996 199 182 188 
0.647773 3.076923 -13.059110 200 185 188 
0.715447 3.089431 -13.112196 198 186 186 
0.783673 3.102041 -13.165714 203 189 189 
0.859504 3.140496 -13.328926 203 185 185 
0.933333 3.166667 -13.440001 195 175 176 
1.000000 3.166667 -13.440001 193 171 174 
1.084746 3.220339 -13.667797 175 154 159 
1.187773 3.318777 -14.085590 137 120 126 
1.263158 3.333333 -14.147368 65 55 63 
1.339207 3.348018 -14.209692 34 31 40 
1.409692 3.348018 -14.209692 33 31 42 
1.493333 3.377778 -14.336000 31 33 45 
1.571429 3.392857 -14.400001 33 39 53 
1.642857 3.392857 -14.400001 39 47 60 
1.721973 3.408072 -14.464575 41 48 64 
1.793722 3.408072 -14.464575 39 45 59 
1.857143 3.392857 -14.400001 40 44 56 
1.928571 3.392857 -14.400001 44 44 56 
1.697749 2.443730 -10.371704 52 51 56 
1.738019 2.428115 -10.305431 52 57 63 
1.794872 2.435897 -10.338462 57 57 59 
1.882353 2.483660 -10.541177 85 73 61 
1.782609 2.065217 -8.765218 168 141 112 
1.826087 2.065217 -8.765218 161 132 100 
1.869565 2.065217 -8.765218 185 156 122 
1.913043 2.065217 -8.765218 186 160 127 
1.956522 2.065217 -8.765218 142 121 94 
2.000000 2.065217 -8.765218 74 64 52 
2.043478 2.065217 -8.765218 51 46 43 
2.086957 2.065217 -8.765218 50 45 52 
2.636364 2.159091 -9.163636 51 48 55 
2.674221 2.152975 -9.137677 51 45 47 
2.719547 2.152975 -9.137677 71 56 51 
2.772727 2.159091 -9.163636 104 84 73 
2.818182 2.159091 -9.163636 92 68 56 
2.863636 2.159091 -9.163636 98 72 57 
2.909091 2.159091 -9.163636 132 104 83 
2.954545 2.159091 -9.163636 172 144 120 
3.000000 2.159091 -9.163636 147 121 96 
3.045455 2.159091 -9.163636 117 92 70 
3.090909 2.159091 -9.163636 113 92 73 
3.136364 2.159091 -9.163636 119 103 88 
3.181818 2.159091 -9.163636 81 71 62 
3.245714 2.171429 -9.216001 62 55 49 
3.291429 2.171429 -9.216001 53 48 45 
3.346705 2.177650 -9.242407 48 44 43 
3.402299 2.183908 -9.268966 50 46 45 
3.458213 2.190202 -9.295677 47 43 42 
3.640718 2.275449 -9.657485 49 45 42 
3.699700 2.282282 -9.686487 45 41 40 
3.747748 2.282282 -9.686487 40 38 39 
3.773134 2.268657 -9.628657 40 38 41 
3.820895 2.268657 -9.628657 37 35 40 
3.857143 2.261905 -9.600000 36 34 39 
3.893175 2.255193 -9.571513 38 33 37 
3.928994 2.248521 -9.543196 38 30 28 
3.952941 2.235294 -9.487059 46 32 21 
3.988270 2.228739 -9.459238 96 76 52 
4.011662 2.215744 -9.404082 158 130 93 
4.000000 2.183908 -9.268966 173 142 98 
4.022857 2.171429 -9.216001 170 135 93 
4.056980 2.165242 -9.189744 170 136 98 
4.090909 2.159091 -9.163636 184 155 125 
4.136364 2.159091 -9.163636 170 144 119 
4.181818 2.159091 -9.163636 164 139 117 
4.227273 2.159091 -9.163636 162 140 116 
4.272727 2.159091 -9.163636 159 135 109 
4.305949 2.152975 -9.137677 157 130 103 
4.326761 2.140845 -9.086198 138 106 81 
4.371831 2.140845 -9.086198 96 64 41 
4.416902 2.140845 -9.086198 89 58 37 
3.240876 1.386861 -5.886132 43 43 41 
3.270073 1.386861 -5.886132 43 42 40 
3.317431 1.394495 -5.918532 44 43 41 
3.359116 1.399632 -5.940331 43 43 43 
3.401109 1.404806 -5.962292 43 43 41 
3.437037 1.407407 -5.973333 44 43 39 
3.466667 1.407407 -5.973333 45 44 39 
3.489834 1.404806 -5.962292 46 47 42 
3.506446 1.399632 -5.940331 48 50 45 
3.535912 1.399632 -5.940331 50 50 50 
-39.000000 23.250000 -100.800003 224 232 221 
-38.500000 23.250000 -100.800003 228 236 225 
-38.000000 23.250000 -100.800003 230 233 224 
-37.500000 23.250000 -100.800003 228 229 221 
-37.000000 23.250000 -100.800003 231 232 226 
-36.500000 23.250000 -100.800003 236 237 231 
-36.000000 23.250000 -100.800003 233 235 230 
-35.500000 23.250000 -100.800003 227 232 226 
-35.000000 23.250000 -100.800003 229 236 229 
-34.500000 23.250000 -100.800003 228 234 230 
-34.000000 23.250000 -100.800003 232 237 233 
-33.500000 23.250000 -100.800003 235 237 234 
-33.000000 23.250000 -100.800003 232 234 229 
-32.500000 23.250000 -100.800003 238 240 235 
-32.000000 23.250000 -100.800003 246 247 242 
-31.500000 23.250000 -100.800003 237 239 234 
-31.000000 23.250000 -100.800003 243 245 244 
-30.500000 23.250000 -100.800003 239 240 242 
-30.000000 23.250000 -100.800003 241 241 243 
-29.500000 23.250000 -100.800003 246 246 248 
-29.000000 23.250000 -100.800003 244 246 245 
-28.500000 23.250000 -100.800003 238 240 239 
-28.000000 23.250000 -100.800003 235 237 234 
-27.500000 23.250000 -100.800003 238 239 234 
-27.000000 23.250000 -100.800003 237 236 232 
-26.500000 23.250000 -100.800003 235 230 224 
-26.000000 23.250000 -100.800003 222 214 203 
-25.500000 23.250000 -100.800003 230 226 214 
-25.000000 23.250000 -100.800003 249 250 244 
-24.500000 23.250000 -100.800003 251 255 255 
-24.000000 23.250000 -100.800003 244 250 250 
-23.500000 23.250000 -100.800003 211 216 220 
-23.000000 23.250000 -100.800003 161 166 172 
-22.500000 23.250000 -100.800003 141 144 151 
-22.000000 23.250000 -100.800003 144 145 150 
-21.500000 23.250000 -100.800003 152 151 156 
-21.000000 23.250000 -100.800003 159 159 161 
-20.500000 23.250000 -100.800003 156 156 156 
-20.000000 23.250000 -100.800003 206 205 203 
-19.500000 23.250000 -100.800003 249 245 244 
-1.699115 3.292035 -14.272567 245 249 252 
-1.614035 3.263158 -14.147368 225 232 240 
-1.497872 3.165957 -13.725958 201 211 223 
-1.405858 3.112971 -13.496235 141 154 171 
-1.327801 3.087137 -13.384233 82 98 121 
-1.256198 3.074380 -13.328926 62 82 109 
-1.180328 3.049180 -13.219672 55 74 104 
-1.110204 3.036735 -13.165714 52 68 101 
-1.040650 3.024390 -13.112196 47 62 95 
-0.967742 3.000000 -13.006452 52 61 90 
-0.892430 2.964144 -12.850996 91 89 110 
-0.825397 2.952381 -12.800000 141 130 146 
-0.758893 2.940711 -12.749408 170 153 169 
-0.692913 2.929134 -12.699213 184 163 178 
-0.629921 2.929134 -12.699213 193 171 184 
-0.564706 2.917647 -12.649412 199 179 190 
-0.501961 2.917647 -12.649412 202 186 196 
-0.440945 2.929134 -12.699213 192 179 188 
-0.377953 2.929134 -12.699213 181 168 177 
-0.313726 2.917647 -12.649412 168 155 164 
-0.250980 2.917647 -12.649412 167 147 159 
-0.188235 2.917647 -12.649412 171 144 161 
-0.125490 2.917647 -12.649412 171 138 159 
-0.062500 2.906250 -12.600000 175 137 162 
0.000000 2.906250 -12.600000 180 140 167 
0.062500 2.906250 -12.600000 182 139 167 
0.125000 2.906250 -12.600000 189 149 173 
0.187500 2.906250 -12.600000 184 146 167 
0.250000 2.906250 -12.600000 179 144 164 
0.312500 2.906250 -12.600000 179 144 164 
0.376471 2.917647 -12.649412 182 148 165 
0.442688 2.940711 -12.749408 185 152 169 
0.507937 2.952381 -12.800000 184 158 171 
0.576000 2.976000 -12.902400 182 162 171 
0.650406 3.024390 -13.112196 186 174 178 
0.718367 3.036735 -13.165714 196 188 186 
0.786885 3.049180 -13.219672 207 197 196 
0.859504 3.074380 -13.328926 201 187 186 
0.933333 3.100000 -13.440001 198 178 180 
1.004184 3.112971 -13.496235 190 168 171 
1.089362 3.165957 -13.725958 166 145 150 
1.187773 3.248908 -14.085590 123 106 112 
1.263158 3.263158 -14.147368 53 46 53 
1.333333 3.263158 -14.147368 38 35 42 
1.409692 3.277533 -14.209692 30 29 37 
1.493333 3.306667 -14.336000 31 34 43 
1.571429 3.321429 -14.400001 36 40 52 
1.642857 3.321429 -14.400001 39 45 57 
1.721973 3.336323 -14.464575 41 47 61 
1.793722 3.336323 -14.464575 41 47 59 
1.857143 3.321429 -14.400001 43 47 59 
1.928571 3.321429 -14.400001 43 45 57 
2.000000 3.321429 -14.400001 47 47 57 
1.681529 2.369427 -10.272612 59 63 72 
1.732484 2.369427 -10.272612 65 74 83 
1.794872 2.384615 -10.338462 72 76 79 
1.739130 2.021739 -8.765218 158 133 103 
1.782609 2.021739 -8.765218 169 142 112 
1.826087 2.021739 -8.765218 165 136 104 
1.869565 2.021739 -8.765218 184 155 123 
1.913043 2.021739 -8.765218 186 159 129 
1.956522 2.021739 -8.765218 153 131 107 
2.000000 2.021739 -8.765218 83 69 56 
2.043478 2.021739 -8.765218 62 55 49 
2.086957 2.021739 -8.765218 56 54 57 
2.130435 2.021739 -8.765218 57 56 62 
2.590909 2.113636 -9.163636 53 51 56 
2.636364 2.113636 -9.163636 54 49 55 
2.674221 2.107649 -9.137677 59 50 53 
2.727273 2.113636 -9.163636 72 57 54 
2.772727 2.113636 -9.163636 119 99 90 
2.818182 2.113636 -9.163636 144 121 107 
2.863636 2.113636 -9.163636 153 126 105 
2.909091 2.113636 -9.163636 156 126 100 
2.954545 2.113636 -9.163636 180 149 120 
3.000000 2.113636 -9.163636 158 129 99 
3.045455 2.113636 -9.163636 158 131 104 
3.090909 2.113636 -9.163636 163 141 118 
3.136364 2.113636 -9.163636 146 129 111 
3.181818 2.113636 -9.163636 92 82 70 
3.245714 2.125714 -9.216001 63 59 50 
3.291429 2.125714 -9.216001 53 50 45 
3.356322 2.137931 -9.268966 49 48 44 
3.412104 2.144092 -9.295677 49 48 44 
3.478261 2.156522 -9.349566 49 48 44 
3.640718 2.227545 -9.657485 51 47 46 
3.699700 2.234234 -9.686487 46 42 41 
3.736527 2.227545 -9.657485 45 41 42 
3.773134 2.220896 -9.628657 45 43 46 
3.809524 2.214286 -9.600000 39 36 43 
3.857143 2.214286 -9.600000 35 32 39 
3.904762 2.214286 -9.600000 37 37 39 
3.928994 2.201183 -9.543196 33 29 26 
3.964602 2.194690 -9.515044 45 32 23 
4.000000 2.188235 -9.487059 91 70 49 
4.023392 2.175439 -9.431580 155 127 90 
4.000000 2.137931 -9.268966 173 142 98 
4.022857 2.125714 -9.216001 167 133 88 
4.056980 2.119658 -9.189744 167 134 93 
4.102564 2.119658 -9.189744 184 155 121 
4.136364 2.113636 -9.163636 168 143 113 
4.181818 2.113636 -9.163636 161 139 116 
4.227273 2.113636 -9.163636 159 137 114 
4.272727 2.113636 -9.163636 160 136 112 
4.305949 2.107649 -9.137677 156 130 105 
4.326761 2.095775 -9.086198 139 109 85 
4.371831 2.095775 -9.086198 95 64 43 
4.416902 2.095775 -9.086198 88 57 37 
3.288073 1.365138 -5.918532 76 87 83 
3.341959 1.375231 -5.962292 77 86 83 
3.396648 1.385475 -6.006704 74 80 78 
3.445693 1.393258 -6.040450 63 65 64 
3.475655 1.393258 -6.040450 53 52 50 
3.505618 1.393258 -6.040450 51 47 44 
3.489834 1.375231 -5.962292 49 48 46 
3.512915 1.372694 -5.951292 52 51 49 
3.542435 1.372694 -5.951292 54 54 56 
3.571956 1.372694 -5.951292 54 54 56 
-39.000000 22.750000 -100.800003 230 237 230 
-38.500000 22.750000 -100.800003 231 238 230 
-38.000000 22.750000 -100.800003 233 238 232 
-37.500000 22.750000 -100.800003 234 236 231 
-37.000000 22.750000 -100.800003 231 233 228 
-36.500000 22.750000 -100.800003 225 230 226 
-36.000000 22.750000 -100.800003 229 234 230 
-35.500000 22.750000 -100.800003 236 242 238 
-35.000000 22.750000 -100.800003 237 246 243 
-34.500000 22.750000 -100.800003 228 237 234 
-34.000000 22.750000 -100.800003 223 232 229 
-33.500000 22.750000 -100.800003 227 233 231 
-33.000000 22.750000 -100.800003 231 235 234 
-32.500000 22.750000 -100.800003 239 244 240 
-32.000000 22.750000 -100.800003 247 249 246 
-31.500000 22.750000 -100.800003 240 242 241 
-31.000000 22.750000 -100.800003 237 239 238 
-30.500000 22.750000 -100.800003 240 241 243 
-30.000000 22.750000 -100.800003 246 247 249 
-29.500000 22.750000 -100.800003 252 253 255 
-29.000000 22.750000 -100.800003 253 255 254 
-28.500000 22.750000 -100.800003 248 250 249 
-28.000000 22.750000 -100.800003 239 241 238 
-27.500000 22.750000 -100.800003 233 235 232 
-27.000000 22.750000 -100.800003 236 235 233 
-26.500000 22.750000 -100.800003 239 236 231 
-26.000000 22.750000 -100.800003 230 222 209 
-25.500000 22.750000 -100.800003 222 219 204 
-25.000000 22.750000 -100.800003 238 241 232 
-24.500000 22.750000 -100.800003 252 255 253 
-24.000000 22.750000 -100.800003 247 249 248 
-23.500000 22.750000 -100.800003 212 213 217 
-23.000000 22.750000 -100.800003 166 169 176 
-22.500000 22.750000 -100.800003 136 139 148 
-22.000000 22.750000 -100.800003 146 147 152 
-21.500000 22.750000 -100.800003 163 163 165 
-21.000000 22.750000 -100.800003 165 163 164 
-20.500000 22.750000 -100.800003 158 157 155 
-20.000000 22.750000 -100.800003 204 200 197 
-19.500000 22.750000 -100.800003 247 246 242 
-1.628319 3.221239 -14.272567 242 246 249 
-1.510730 3.124464 -13.843778 215 222 232 
-1.417722 3.071730 -13.610127 154 166 180 
-1.333333 3.033333 -13.440001 90 106 129 
-1.256198 3.008265 -13.328926 67 87 114 
-1.180328 2.983607 -13.219672 55 76 107 
-1.105691 2.959350 -13.112196 49 68 100 
-1.032258 2.935484 -13.006452 49 65 98 
-0.960000 2.912000 -12.902400 52 61 90 
-0.888889 2.888889 -12.800000 77 78 98 
-0.822134 2.877470 -12.749408 124 117 133 
-0.755906 2.866142 -12.699213 160 146 163 
-0.692913 2.866142 -12.699213 178 160 174 
-0.629921 2.866142 -12.699213 190 170 182 
-0.566929 2.866142 -12.699213 200 180 191 
-0.503937 2.866142 -12.699213 206 191 198 
-0.440945 2.866142 -12.699213 203 190 197 
-0.377953 2.866142 -12.699213 189 178 186 
-0.314961 2.866142 -12.699213 170 157 166 
-0.251969 2.866142 -12.699213 157 136 151 
-0.188235 2.854902 -12.649412 154 125 145 
-0.125490 2.854902 -12.649412 153 118 142 
-0.062500 2.843750 -12.600000 161 118 146 
0.000000 2.843750 -12.600000 166 121 152 
0.062500 2.843750 -12.600000 166 120 149 
0.125000 2.843750 -12.600000 169 123 151 
0.187500 2.843750 -12.600000 167 123 148 
0.250000 2.843750 -12.600000 164 124 148 
0.313726 2.854902 -12.649412 162 124 147 
0.376471 2.854902 -12.649412 157 119 142 
0.442688 2.877470 -12.749408 153 120 139 
0.507937 2.888889 -12.800000 164 136 151 
0.578313 2.923695 -12.954217 177 156 165 
0.653061 2.971429 -13.165714 192 180 182 
0.718367 2.971429 -13.165714 199 189 188 
0.786885 2.983607 -13.219672 202 191 189 
0.863071 3.020747 -13.384233 197 181 181 
0.933333 3.033333 -13.440001 193 171 174 
1.004184 3.046025 -13.496235 185 162 168 
1.089362 3.097872 -13.725958 159 138 145 
1.187773 3.179039 -14.085590 99 84 91 
1.263158 3.192982 -14.147368 51 46 53 
1.333333 3.192982 -14.147368 38 37 45 
1.409692 3.207048 -14.209692 30 30 40 
1.493333 3.235556 -14.336000 28 30 42 
1.571429 3.250000 -14.400001 32 36 48 
1.642857 3.250000 -14.400001 36 42 54 
1.714286 3.250000 -14.400001 39 45 57 
1.785714 3.250000 -14.400001 42 46 57 
1.857143 3.250000 -14.400001 44 46 58 
1.920000 3.235556 -14.336000 46 46 56 
1.991111 3.235556 -14.336000 50 50 60 
1.732484 2.318471 -10.272612 76 86 98 
1.695652 1.978261 -8.765218 183 156 126 
1.739130 1.978261 -8.765218 168 144 110 
1.782609 1.978261 -8.765218 167 141 106 
1.826087 1.978261 -8.765218 168 140 103 
1.869565 1.978261 -8.765218 184 155 121 
1.913043 1.978261 -8.765218 186 159 129 
1.956522 1.978261 -8.765218 159 135 111 
2.000000 1.978261 -8.765218 92 76 61 
2.043478 1.978261 -8.765218 71 62 57 
2.086957 1.978261 -8.765218 65 63 66 
2.130435 1.978261 -8.765218 64 63 69 
2.173913 1.978261 -8.765218 64 62 67 
2.217391 1.978261 -8.765218 68 63 67 
2.260870 1.978261 -8.765218 67 65 68 
2.590909 2.068182 -9.163636 54 52 57 
2.636364 2.068182 -9.163636 56 50 54 
2.681818 2.068182 -9.163636 57 47 48 
2.727273 2.068182 -9.163636 72 57 54 
2.772727 2.068182 -9.163636 129 109 100 
2.818182 2.068182 -9.163636 164 138 121 
2.909091 2.068182 -9.163636 166 133 102 
2.954545 2.068182 -9.163636 182 149 114 
3.000000 2.068182 -9.163636 167 134 101 
3.045455 2.068182 -9.163636 167 138 108 
3.090909 2.068182 -9.163636 174 148 123 
3.136364 2.068182 -9.163636 154 136 116 
3.181818 2.068182 -9.163636 98 86 72 
3.245714 2.080000 -9.216001 67 60 50 
3.291429 2.080000 -9.216001 57 54 49 
3.365994 2.097983 -9.295677 51 50 46 
3.431884 2.110145 -9.349566 53 52 50 
3.508772 2.128655 -9.431580 50 49 47 
3.629851 2.173134 -9.628657 49 48 46 
3.688623 2.179641 -9.657485 49 45 44 
3.736527 2.179641 -9.657485 44 40 41 
3.761905 2.166667 -9.600000 41 39 40 
3.809524 2.166667 -9.600000 45 43 46 
3.857143 2.166667 -9.600000 45 45 47 
3.904762 2.166667 -9.600000 38 38 38 
3.940653 2.160237 -9.571513 34 31 26 
3.976331 2.153846 -9.543196 44 31 22 
4.011799 2.147493 -9.515044 87 69 47 
4.035191 2.134897 -9.459238 150 124 89 
4.011528 2.097983 -9.295677 171 140 96 
4.034384 2.085960 -9.242407 165 132 89 
4.068572 2.080000 -9.216001 163 131 90 
4.102564 2.074074 -9.189744 179 151 114 
4.136364 2.068182 -9.163636 165 140 109 
4.181818 2.068182 -9.163636 158 136 113 
4.215297 2.062323 -9.137677 157 136 115 
4.260623 2.062323 -9.137677 160 136 112 
4.305949 2.062323 -9.137677 157 131 106 
4.326761 2.050704 -9.086198 140 112 90 
4.371831 2.050704 -9.086198 100 69 48 
4.416902 2.050704 -9.086198 90 59 39 
3.411321 1.373585 -6.086038 84 96 92 
3.435028 1.370998 -6.074576 86 92 90 
3.465160 1.370998 -6.074576 73 75 72 
3.495292 1.370998 -6.074576 61 60 58 
3.525424 1.370998 -6.074576 58 54 53 
3.535581 1.363296 -6.040450 58 54 53 
3.512915 1.343173 -5.951292 56 54 55 
3.542435 1.343173 -5.951292 55 56 60 
3.571956 1.343173 -5.951292 54 55 59 
-39.000000 22.250000 -100.800003 229 231 228 
-38.500000 22.250000 -100.800003 235 237 232 
-38.000000 22.250000 -100.800003 235 240 236 
-37.500000 22.250000 -100.800003 230 236 232 
-37.000000 22.250000 -100.800003 229 235 231 
-36.500000 22.250000 -100.800003 229 238 235 
-36.000000 22.250000 -100.800003 233 242 239 
-35.500000 22.250000 -100.800003 239 248 245 
-35.000000 22.250000 -100.800003 242 252 251 
-34.500000 22.250000 -100.800003 236 248 246 
-34.000000 22.250000 -100.800003 225 240 237 
-33.500000 22.250000 -100.800003 220 232 228 
-33.000000 22.250000 -100.800003 220 231 227 
-32.500000 22.250000 -100.800003 233 239 237 
-32.000000 22.250000 -100.800003 244 244 244 
-31.500000 22.250000 -100.800003 237 235 236 
-31.000000 22.250000 -100.800003 235 237 236 
-30.500000 22.250000 -100.800003 243 245 244 
-30.000000 22.250000 -100.800003 251 253 252 
-29.500000 22.250000 -100.800003 252 255 255 
-29.000000 22.250000 -100.800003 252 255 255 
-28.500000 22.250000 -100.800003 254 255 255 
-28.000000 22.250000 -100.800003 251 251 249 
-27.500000 22.250000 -100.800003 244 243 241 
-27.000000 22.250000 -100.800003 236 232 231 
-26.500000 22.250000 -100.800003 231 226 222 
-25.500000 22.250000 -100.800003 217 214 197 
-25.000000 22.250000 -100.800003 231 234 223 
-24.500000 22.250000 -100.800003 252 254 249 
-24.000000 22.250000 -100.800003 249 245 244 
-23.500000 22.250000 -100.800003 226 221 225 
-23.000000 22.250000 -100.800003 181 182 187 
-22.500000 22.250000 -100.800003 140 143 150 
-22.000000 22.250000 -100.800003 149 148 154 
-21.500000 22.250000 -100.800003 173 171 174 
-21.000000 22.250000 -100.800003 184 180 181 
-20.500000 22.250000 -100.800003 191 185 185 
-20.000000 22.250000 -100.800003 218 214 213 
-19.500000 22.250000 -100.800003 245 244 242 
-19.000000 22.250000 -100.800003 254 254 254 
-1.628319 3.150442 -14.272567 254 255 255 
-1.537118 3.109170 -14.085590 230 237 247 
-1.423729 3.016949 -13.667797 169 181 195 
-1.338912 2.979079 -13.496235 96 112 135 
-1.261411 2.954357 -13.384233 67 87 114 
-1.180328 2.918033 -13.219672 53 74 103 
-1.105691 2.894309 -13.112196 48 67 99 
-1.024000 2.848000 -12.902400 53 69 102 
-0.952381 2.825397 -12.800000 56 67 95 
-0.881890 2.803150 -12.699213 69 71 92 
-0.818898 2.803150 -12.699213 105 101 118 
-0.755906 2.803150 -12.699213 146 133 150 
-0.692913 2.803150 -12.699213 170 153 169 
-0.629921 2.803150 -12.699213 185 164 179 
-0.566929 2.803150 -12.699213 195 178 188 
-0.503937 2.803150 -12.699213 203 188 195 
-0.442688 2.814229 -12.749408 203 190 197 
-0.379447 2.814229 -12.749408 200 189 195 
-0.316206 2.814229 -12.749408 190 177 186 
-0.252964 2.814229 -12.749408 185 165 177 
-0.188976 2.803150 -12.699213 181 154 171 
-0.125490 2.792157 -12.649412 179 146 167 
-0.062500 2.781250 -12.600000 182 144 167 
0.000000 2.781250 -12.600000 186 146 172 
0.062500 2.781250 -12.600000 187 144 171 
0.125000 2.781250 -12.600000 184 140 165 
0.187500 2.781250 -12.600000 186 144 166 
0.250000 2.781250 -12.600000 185 146 167 
0.313726 2.792157 -12.649412 181 143 164 
0.376471 2.792157 -12.649412 176 141 161 
0.442688 2.814229 -12.749408 181 148 165 
0.507937 2.825397 -12.800000 192 164 176 
0.578313 2.859438 -12.954217 202 181 188 
0.653061 2.906122 -13.165714 200 186 186 
0.718367 2.906122 -13.165714 202 188 187 
0.786885 2.918033 -13.219672 203 183 184 
0.863071 2.954357 -13.384233 201 176 179 
0.933333 2.966667 -13.440001 190 163 168 
1.008403 2.991597 -13.552941 172 147 153 
1.084746 3.016949 -13.667797 138 119 125 
1.187773 3.109170 -14.085590 70 59 67 
1.263158 3.122807 -14.147368 39 37 48 
1.333333 3.122807 -14.147368 32 34 47 
1.409692 3.136564 -14.209692 27 31 43 
1.486726 3.150442 -14.272567 28 32 44 
1.571429 3.178571 -14.400001 31 37 51 
1.642857 3.178571 -14.400001 37 43 55 
1.714286 3.178571 -14.400001 44 48 60 
1.785714 3.178571 -14.400001 47 49 61 
1.857143 3.178571 -14.400001 45 45 55 
1.920000 3.164444 -14.336000 51 50 58 
1.991111 3.164444 -14.336000 59 58 66 
1.612732 1.888594 -8.555968 187 163 135 
1.655172 1.888594 -8.555968 190 164 131 
1.739130 1.934783 -8.765218 163 137 102 
1.782609 1.934783 -8.765218 168 143 103 
1.826087 1.934783 -8.765218 166 138 98 
1.869565 1.934783 -8.765218 180 152 113 
1.913043 1.934783 -8.765218 185 159 124 
1.956522 1.934783 -8.765218 161 137 111 
2.000000 1.934783 -8.765218 94 78 63 
2.043478 1.934783 -8.765218 71 62 57 
2.086957 1.934783 -8.765218 67 65 70 
2.130435 1.934783 -8.765218 67 66 74 
2.173913 1.934783 -8.765218 70 67 74 
2.217391 1.934783 -8.765218 69 64 71 
2.260870 1.934783 -8.765218 71 66 72 
2.590909 2.022727 -9.163636 65 60 67 
2.636364 2.022727 -9.163636 68 58 66 
2.681818 2.022727 -9.163636 65 50 53 
2.727273 2.022727 -9.163636 75 57 53 
2.772727 2.022727 -9.163636 127 105 94 
2.818182 2.022727 -9.163636 163 136 115 
2.863636 2.022727 -9.163636 172 143 113 
2.909091 2.022727 -9.163636 168 134 97 
2.954545 2.022727 -9.163636 185 150 112 
3.000000 2.022727 -9.163636 170 134 98 
3.045455 2.022727 -9.163636 170 137 106 
3.090909 2.022727 -9.163636 177 147 121 
3.136364 2.022727 -9.163636 159 136 118 
3.181818 2.022727 -9.163636 102 86 73 
3.245714 2.034286 -9.216001 69 58 52 
3.291429 2.034286 -9.216001 63 58 55 
3.385507 2.063768 -9.349566 55 51 50 
3.461988 2.081871 -9.431580 55 51 52 
3.529412 2.094118 -9.487059 50 48 49 
3.619048 2.119048 -9.600000 53 52 50 
3.677612 2.125373 -9.628657 53 52 48 
3.725373 2.125373 -9.628657 44 43 39 
3.761905 2.119048 -9.600000 40 41 35 
3.809524 2.119048 -9.600000 50 53 46 
3.857143 2.119048 -9.600000 57 60 53 
3.904762 2.119048 -9.600000 44 45 40 
3.952381 2.119048 -9.600000 40 35 29 
3.976331 2.106509 -9.543196 48 36 24 
4.023669 2.106509 -9.543196 85 67 45 
4.047059 2.094118 -9.487059 145 119 84 
4.023121 2.057803 -9.322544 169 137 96 
4.045977 2.045977 -9.268966 167 134 93 
4.080229 2.040115 -9.242407 165 133 94 
4.114286 2.034286 -9.216001 181 153 116 
4.148148 2.028490 -9.189744 167 144 113 
4.181818 2.022727 -9.163636 161 139 116 
4.215297 2.016997 -9.137677 159 138 117 
4.260623 2.016997 -9.137677 161 137 111 
4.305949 2.016997 -9.137677 158 132 105 
4.326761 2.005634 -9.086198 145 115 91 
4.371831 2.005634 -9.086198 104 72 49 
4.429379 2.011299 -9.111865 91 59 38 
3.441509 1.343396 -6.086038 71 76 72 
3.465160 1.340866 -6.074576 62 62 60 
3.495292 1.340866 -6.074576 56 55 53 
3.532075 1.343396 -6.086038 62 58 57 
3.562264 1.343396 -6.086038 65 63 64 
3.519408 1.316081 -5.962292 64 63 68 
3.542435 1.313653 -5.951292 58 61 68 
-39.000000 21.750000 -100.800003 222 226 225 
-38.500000 21.750000 -100.800003 233 235 234 
-38.000000 21.750000 -100.800003 234 238 237 
-37.500000 21.750000 -100.800003 228 237 234 
-37.000000 21.750000 -100.800003 232 243 239 
-36.500000 21.750000 -100.800003 240 250 249 
-36.000000 21.750000 -100.800003 243 253 252 
-35.500000 21.750000 -100.800003 240 252 250 
-35.000000 21.750000 -100.800003 239 253 253 
-34.500000 21.750000 -100.800003 239 255 252 
-34.000000 21.750000 -100.800003 230 249 245 
-33.500000 21.750000 -100.800003 224 240 237 
-33.000000 21.750000 -100.800003 222 234 232 
-32.500000 21.750000 -100.800003 225 234 231 
